ply
format ascii 1.0
element vertex 1297
property float x
property float y
property float z
property uchar red
property uchar green
property uchar blue
end_header
-2.476907 1.643836 4.880656 0 0 0
-2.965042 -0.795132 6.457788 0 0 0
-1.286521 -0.726559 5.789480 112 115 112
-2.005470 -2.185042 6.275096 0 0 0
-0.589949 0.785113 2.859187 93 101 97
-0.589949 0.785113 2.859187 93 101 97
-0.506569 0.815532 2.954822 47 47 43
-0.899895 0.032905 3.444317 92 107 98
0.017330 1.145546 4.674382 0 0 0
-3.083585 -3.588342 7.804926 91 91 84
0.880997 3.409757 3.169299 39 39 39
0.553101 3.128856 3.291925 73 75 71
0.717514 3.232770 2.538688 153 158 154
0.979945 3.312579 3.356828 0 0 0
-0.821980 0.917911 2.928001 84 86 82
-0.555398 1.367669 2.629173 172 163 153
-0.922401 0.887215 2.812002 51 53 49
-0.979440 0.908696 2.897828 47 47 37
-0.830968 0.875257 2.862903 50 53 49
-0.796869 0.951177 2.953462 38 42 36
-2.654124 1.098927 5.184138 172 164 160
-2.921203 1.467646 5.442255 196 190 186
1.179571 -4.106508 6.830405 63 57 49
1.081559 -4.808980 7.180775 99 84 74
0.847464 3.481533 3.231649 57 53 57
-1.002750 0.892498 2.779027 96 98 92
0.386819 2.070175 3.761804 61 58 54
1.105009 3.125120 3.157965 51 49 49
-0.592541 0.757791 2.804507 96 106 100
-0.605865 0.793568 2.862960 94 102 97
0.205454 0.555101 3.067464 93 87 82
1.126395 3.113587 3.234830 69 74 79
-1.721351 -0.512672 4.712656 90 91 87
1.020269 -4.788813 7.185310 111 92 87
0.155854 0.762436 3.114324 34 32 24
0.245152 1.306084 4.923086 0 0 0
-0.339911 0.734600 2.918447 45 50 46
-0.003446 0.497777 2.564222 120 113 99
0.216228 -2.960577 6.407583 19 13 9
-2.240752 -0.142997 5.532597 121 117 110
-0.414125 -3.526030 6.736614 45 46 10
-0.534587 0.827904 2.949760 41 44 40
-0.592541 0.757791 2.804507 96 106 100
0.779567 0.907216 4.047517 101 99 98
0.862752 -4.726305 7.179583 0 0 0
0.247407 0.715088 2.990087 67 67 63
0.258825 -3.546467 6.599238 29 14 10
0.522611 -1.793361 5.076361 0 0 0
0.717188 -3.236117 7.412862 22 11 8
0.389354 0.591569 3.274400 61 57 50
0.226927 0.436605 3.117069 71 57 46
0.314968 -1.751771 5.806930 26 20 15
-0.193409 -2.775967 6.390648 74 58 45
-0.083333 1.143584 2.273943 83 68 59
-0.326517 0.593203 2.757200 75 78 72
-0.527811 0.256031 4.138806 49 47 44
-7.728501 -12.994929 14.759433 60 59 50
-0.460545 0.720610 2.825232 0 0 0
-0.455701 0.791904 2.955633 81 87 82
0.008317 1.279629 4.495057 159 155 150
-1.470023 -0.994740 6.136088 183 181 176
-0.383353 0.755922 2.927179 32 34 32
-0.481122 0.656190 2.834510 105 113 102
0.077071 0.571716 2.777365 86 84 83
0.225814 0.511480 3.063556 111 96 84
0.457595 -1.165204 5.539242 135 127 121
-0.082160 -1.522935 5.783886 23 15 7
0.581398 -1.413839 5.793942 0 0 0
0.623968 0.739685 3.708358 36 30 28
0.630310 0.792395 3.549287 69 63 56
0.131380 -1.022414 5.479248 0 0 0
-0.251000 -3.802673 6.789023 78 69 57
-0.289683 -4.443748 7.371159 0 0 0
0.879290 -1.156427 5.363112 0 0 0
0.900856 -0.541140 3.798231 48 44 39
-0.376677 0.787783 2.994392 82 87 82
-0.473627 0.733288 2.836652 95 101 96
-0.298166 0.742693 2.963878 76 81 75
-1.588848 -0.122153 5.092940 140 134 128
-1.514477 -0.715421 5.658745 126 122 117
-2.842164 -3.019762 7.959516 0 0 0
-1.329938 -0.770652 5.741409 0 0 0
-0.696859 0.643234 3.980205 180 176 169
-1.540797 -0.622474 5.537564 186 182 176
-1.519430 -0.717140 5.658704 126 122 117
1.074321 2.763229 3.267844 0 0 0
-0.329465 0.716771 2.957951 69 75 70
-1.649569 -1.790702 5.966097 34 20 18
-0.338951 0.727906 2.909788 72 76 72
-0.429406 0.784356 2.955278 106 110 102
0.431058 2.020682 3.120326 165 161 156
-0.418975 0.762439 2.919732 59 66 58
-1.166374 -0.645422 5.453400 189 185 176
-1.692961 -1.418069 5.945939 0 0 0
0.794375 3.435210 3.313479 48 42 40
0.126065 1.315422 4.226853 52 46 44
-0.679748 0.915573 2.907856 52 55 51
-1.749286 -0.580557 5.598678 139 135 128
-1.807907 -0.559797 5.586305 183 177 172
-1.907476 -0.631709 5.941538 182 178 173
-1.845026 -0.894545 5.956921 134 130 123
-2.184599 -0.917764 6.166643 178 172 168
0.897176 3.469906 3.167447 62 62 62
0.857153 3.183066 2.793427 18 14 11
-1.920848 -0.536328 5.811842 142 136 130
-3.120321 -1.988168 7.798480 181 177 172
-1.124380 -1.590984 5.216592 67 67 63
0.778093 1.509986 4.419213 86 83 88
0.386905 0.819516 3.454960 108 108 99
0.344657 0.836921 3.437344 65 69 61
0.302748 0.843161 3.310495 96 93 88
0.519364 0.956247 3.617421 45 45 42
0.037756 0.613292 2.943823 69 77 76
0.019582 2.152632 1.599203 59 65 58
-0.457357 0.780964 2.923972 24 19 17
0.645119 -3.042290 6.342937 4 11 14
-0.988754 0.904279 2.812305 82 78 75
-0.436551 0.770152 2.918688 30 26 23
0.862433 3.500444 3.231414 59 57 57
0.187624 0.476359 3.028526 57 50 45
-0.154334 0.620746 2.775427 47 45 44
-0.983342 0.898611 2.785740 45 41 36
0.799066 2.573613 3.504797 28 26 25
-0.874791 0.848138 2.786049 29 25 24
-0.517393 0.832701 2.985234 34 30 27
0.904638 2.486856 3.505530 5 5 3
-0.674547 0.780770 2.783647 55 54 51
-0.361750 0.777635 2.983695 84 79 78
-0.240710 0.726918 2.971651 26 22 21
-0.450267 0.771536 2.919457 92 86 80
-0.278609 0.707272 2.917013 22 22 18
1.189026 -1.520636 5.686714 185 183 181
-0.385552 0.764612 2.945674 64 61 61
-0.070267 -2.310170 6.292722 0 0 0
-2.202440 -0.330702 5.758527 101 99 97
-0.507029 0.751154 2.845872 31 29 23
-0.798553 0.883920 2.892632 84 79 76
-0.416116 0.793957 2.974223 80 74 74
-0.416318 0.794130 2.974346 80 74 74
-0.266447 0.711196 2.939802 24 21 19
0.778708 -3.989950 6.704327 62 51 42
-0.028415 -3.662141 6.745854 27 26 25
-0.235309 0.685953 2.905071 30 28 25
0.797605 -1.354938 5.644035 130 130 125
0.472994 1.034277 4.013809 86 83 81
0.435736 -4.613318 7.200514 44 26 17
-1.149668 -0.731660 5.578492 109 105 99
-2.161036 -0.616196 5.660673 107 105 103
0.189359 0.774056 3.130556 73 70 68
-0.860953 0.933708 2.932536 127 126 118
0.052062 0.695689 3.037100 49 49 39
0.073538 -1.179544 5.799909 185 180 169
0.188323 0.622245 2.732538 43 27 21
0.695786 3.266585 3.054288 67 63 62
0.767583 2.587028 3.521324 14 10 9
-0.463155 0.762500 2.962854 43 50 43
0.104393 0.545092 3.316018 80 82 82
1.284075 -4.734407 7.245915 108 98 88
-2.761643 -18.007844 24.737175 179 173 169
-1.486613 -0.695986 5.602929 187 183 177
0.740254 1.004254 4.208155 15 15 13
0.758671 0.902916 4.194276 51 48 42
0.447628 -3.414958 6.567950 41 28 32
0.925176 0.922099 3.875610 182 172 165
-0.263226 -1.366168 5.498319 112 110 101
-0.263226 -1.366168 5.498319 112 110 101
0.381124 0.891952 4.208171 183 173 168
0.077986 0.516875 3.092174 40 40 32
0.275512 0.288393 3.541742 47 37 34
-0.855466 0.855517 2.797523 95 101 96
-2.877802 -2.049006 7.258044 0 0 0
-2.000299 -1.643220 6.077997 0 0 0
-0.385873 0.724355 2.788044 0 0 0
0.474469 -2.143752 5.984857 139 131 127
-0.781807 -5.993148 10.102360 0 0 0
0.449917 0.548229 3.491998 0 0 0
-1.309122 -1.626237 5.912800 0 0 0
-1.615828 -1.216225 5.818070 33 69 86
-2.638569 -0.553305 5.539783 182 171 160
0.578447 1.327231 3.746934 0 0 0
-0.223321 0.441458 2.733899 44 44 34
0.112712 0.696352 3.558472 63 56 48
0.382397 1.911548 3.217452 0 0 0
-0.579331 0.807001 2.894026 0 0 0
0.012034 0.628292 2.804268 0 0 0
-0.721102 0.951634 3.089308 0 0 0
-0.400244 1.801835 2.485212 0 0 0
0.634535 3.280200 3.288752 0 0 0
-0.040925 0.618708 2.808028 0 0 0
-0.635279 0.760990 2.808888 103 109 98
0.036560 0.585445 2.785036 81 76 68
-0.372853 0.228095 2.908496 117 111 103
-2.057589 -2.338148 6.417725 43 41 26
0.040383 0.561330 2.793600 81 76 68
0.016628 0.612371 2.931984 113 123 119
-0.423799 0.751377 2.890524 0 0 0
-0.185475 0.740360 3.016612 35 40 43
0.048067 0.618064 2.987279 126 141 130
1.044634 -4.656490 7.072970 100 89 82
0.211162 -3.688335 6.661634 50 35 31
-0.024196 -4.370001 7.305783 45 35 31
0.514308 -3.066629 6.401465 8 18 27
0.703456 -2.780657 6.246495 18 22 20
0.447838 1.066505 2.741499 0 0 0
-1.355536 -3.653248 6.965624 31 19 9
0.416775 0.660558 3.316551 64 67 68
1.133146 3.047515 3.282544 65 64 66
-1.815666 -0.448519 5.142614 0 0 0
0.887351 1.972110 4.180681 0 0 0
1.066566 2.434696 3.607335 0 0 0
-2.526319 1.829215 4.937483 0 0 0
-2.854592 -0.761129 5.901944 145 136 123
-5.225411 -7.655946 9.850721 44 39 27
1.125279 3.027396 3.364221 65 64 66
1.112833 3.097612 3.218877 132 135 137
0.962141 2.890073 4.952725 58 54 51
-2.457737 -1.099103 5.894509 78 82 98
-2.355828 -1.000734 6.156852 0 0 0
-0.423807 0.646402 2.788601 187 192 187
-1.976577 -1.172754 5.834078 36 22 23
0.313218 0.651317 3.315640 59 58 54
-3.201927 -2.267414 6.765708 50 44 40
-1.071989 -0.502528 3.780911 159 169 161
-0.777401 -3.167985 6.490640 179 171 163
-0.028917 0.498247 2.671327 93 90 78
0.163076 0.732616 3.148314 100 104 102
-0.330181 0.738372 2.929722 34 38 32
-2.274453 -2.228337 5.466651 111 118 107
-0.252369 0.797414 3.070434 36 31 19
-0.115566 0.647735 2.863297 43 41 36
-0.046317 0.643726 3.108373 88 85 73
-0.022921 0.642052 3.091270 57 51 49
-5.251914 -11.149702 18.579734 30 28 24
-2.963309 -4.553637 9.249767 151 143 135
-1.499270 -1.878956 6.089011 104 102 95
-3.142957 -5.014751 9.330447 95 92 85
0.743312 1.690998 3.941070 48 44 41
0.750171 -0.680663 4.769258 0 0 0
0.666216 -3.246911 6.394508 0 0 0
0.770939 -7.887685 12.557879 188 184 179
0.305058 -3.007026 5.955033 173 162 161
0.512871 0.526763 3.622995 23 17 9
0.534087 0.633001 3.561578 53 47 41
0.771867 0.791025 3.871218 192 184 178
-0.787551 -2.496573 6.467806 88 80 74
0.338149 0.552002 3.210286 87 81 73
0.545455 -1.432012 5.457200 0 0 0
0.531014 -3.856088 6.772368 168 161 148
0.114978 -1.112135 5.661717 178 178 174
0.096989 0.494348 2.776930 90 85 74
0.303475 0.684304 3.213021 67 65 66
1.389288 -1.730756 5.696070 138 130 124
1.067222 2.349351 3.767669 143 135 131
0.238912 0.580938 3.007918 176 165 152
-1.292005 -3.592385 6.939661 104 89 82
0.672338 1.484855 4.189288 55 51 48
-0.011181 0.663937 3.068692 57 51 49
-0.995963 0.906901 2.802691 103 105 99
0.637808 3.207625 3.273132 29 25 22
-2.682567 -1.028883 5.914299 51 49 40
-12.547244 -11.404129 16.009451 0 0 0
0.598530 3.166476 3.280219 75 73 71
-0.842092 0.878545 2.853659 94 98 94
0.856432 3.388684 3.066681 70 68 67
-2.274453 -2.228337 5.466651 111 118 107
-0.312925 0.700488 2.895329 38 38 32
-0.545262 0.867641 3.020568 42 42 38
0.302942 2.065650 3.961067 164 166 160
1.182523 3.210151 3.328484 117 113 114
-0.566132 0.860842 2.669284 53 48 37
-3.652646 -3.432390 8.898797 178 176 173
-1.152626 -0.587768 5.623402 177 175 172
-1.838935 -0.226138 3.275728 0 0 0
-1.124037 -0.186238 3.666941 0 0 0
0.928841 2.389905 5.502542 65 58 58
-0.356358 0.570009 3.276270 0 0 0
-0.966554 0.500224 3.887993 0 0 0
-0.648551 0.900534 3.019417 53 55 49
-2.960721 -1.997958 6.511418 37 36 33
-0.889568 0.917114 2.890705 92 94 88
-2.825364 -1.392859 6.049608 138 120 109
-2.015423 -0.642578 6.075319 0 0 0
-0.714916 0.882144 2.943197 72 78 73
0.487911 2.561364 3.629123 0 0 0
-2.493304 -0.392247 5.906097 123 119 112
-2.371773 -0.351378 5.851866 139 135 130
0.629902 3.187812 3.249728 35 31 28
-1.037768 0.953862 2.840735 40 40 34
-0.515568 0.814074 2.997608 0 0 0
-0.448633 0.781426 2.939550 30 38 31
0.384096 1.848109 3.672637 32 24 20
-1.832202 -0.732436 5.770146 186 181 174
0.623624 2.588358 3.449330 52 48 47
-0.665692 0.861569 2.937012 56 58 52
0.723088 2.585941 3.446503 29 27 26
-0.306533 0.699498 2.880218 96 100 92
-0.163305 0.686953 2.896579 73 77 70
-1.712205 -1.407091 5.904249 0 0 0
-2.194383 -2.651759 6.593381 20 28 26
-1.945300 -2.255578 7.163731 153 147 143
0.155854 0.762436 3.114324 37 37 31
0.277432 -1.578266 5.759805 0 0 0
1.020512 3.310821 3.160460 31 27 26
-2.752875 -0.636007 5.788276 186 172 163
-0.815706 0.648152 3.175471 52 56 50
-0.564278 0.738869 2.814553 125 125 119
0.477279 0.918582 3.205466 57 56 53
0.764917 1.079408 4.031693 56 60 58
0.099246 0.456152 2.813563 43 30 18
0.392969 0.691639 3.316910 50 57 50
-0.012303 0.346533 2.782056 83 74 64
0.005974 0.614723 2.815672 49 58 56
0.100719 0.654685 3.097736 0 0 0
0.076664 0.641461 2.959723 45 47 40
0.468478 0.887401 4.096683 0 0 0
-0.172136 0.467114 2.678560 57 65 59
0.397340 -1.088278 3.919995 0 0 0
0.649406 -4.191505 6.605412 0 0 0
-1.399597 -3.947691 7.248194 33 17 11
-0.559770 -3.440354 6.710644 0 0 0
0.743871 1.682381 3.884403 55 47 47
0.765048 1.593061 4.349666 73 69 68
0.567622 1.717227 4.363585 58 52 47
0.889096 1.907224 5.392239 131 123 119
0.991622 2.360752 3.499954 75 67 65
0.450892 1.318004 4.272877 55 49 45
-0.264888 0.655406 2.844025 83 89 86
-1.538747 -1.086341 5.719176 43 73 77
1.110993 2.161740 2.229968 68 68 63
0.634388 1.112620 4.268304 14 12 10
-0.391677 0.684539 2.802850 38 41 35
-2.315201 -2.417589 6.435151 59 64 50
0.734455 0.931731 3.754387 0 0 0
0.367520 0.733340 3.512111 46 44 39
0.499852 0.726307 3.445634 35 33 27
0.591371 0.768924 3.547126 33 27 21
0.987723 1.060089 4.178236 63 52 42
0.939423 -4.443544 7.058506 50 40 35
1.261389 -4.397793 6.831245 64 53 42
-1.517683 -3.822798 6.588990 26 15 5
0.424287 0.731240 3.313427 43 55 49
0.252928 -1.967401 6.014497 0 0 0
0.339299 -1.226017 5.633187 175 172 163
0.015095 -2.872610 6.396290 8 6 1
-1.007266 0.908960 2.902449 89 89 83
1.147616 -4.610371 7.113915 101 95 85
-0.053236 -3.658621 6.787029 23 19 11
0.691153 -4.230337 6.907185 95 88 76
0.925211 -4.237332 6.951101 59 48 41
-0.144156 0.600274 2.785122 54 51 47
-0.291008 0.701835 2.879217 32 35 27
0.397399 0.783203 4.493308 0 0 0
0.097325 1.276955 4.269199 27 23 20
1.114279 2.962791 3.261179 68 66 64
-0.454306 0.832029 3.022907 86 86 76
-1.679388 -1.080035 6.117244 121 117 112
-0.461459 0.821888 2.996583 56 58 51
-2.061196 -1.152968 6.534793 179 173 169
-0.658015 0.822159 2.871673 55 59 53
0.736709 2.601007 3.487251 30 30 31
-1.635992 -0.638727 5.596122 187 183 178
0.982863 2.409417 3.751435 33 27 25
1.439461 2.153796 6.831037 0 0 0
-1.436635 -0.831936 5.616742 137 133 124
-0.350287 0.767956 2.974632 48 48 39
0.793810 3.438529 3.312134 0 0 0
0.854790 3.562111 3.310313 130 135 138
0.145598 0.775330 3.072378 89 90 84
-0.747495 0.945752 3.020197 57 58 52
0.375069 2.304547 4.332695 37 37 33
0.444193 2.436048 3.529489 57 51 47
-2.196940 -0.549980 5.791754 0 0 0
0.927876 3.477810 3.448820 109 113 109
-0.852001 0.864754 2.838905 58 62 59
0.518574 0.937728 3.605153 82 80 79
0.481816 0.928624 3.733633 15 13 11
0.340939 0.832376 3.490403 23 22 17
0.673140 0.467036 4.948099 58 53 52
-1.266062 -1.507284 5.201649 37 34 35
0.709901 1.470898 4.079736 0 0 0
-1.562995 -2.534967 6.951238 101 93 87
0.996330 2.369000 3.666558 62 59 58
-0.174213 0.715233 2.920848 79 85 80
-4.458074 -6.833106 12.729010 165 155 148
-0.842808 0.914024 2.909062 72 69 64
-0.487402 0.850722 3.028905 35 31 31
-0.723926 0.853866 2.875918 24 22 20
0.735339 0.746994 3.871661 145 139 134
-0.486216 0.787264 2.920312 40 33 30
-0.505502 0.753584 2.857892 77 73 70
-0.498300 0.800088 2.934725 36 30 28
-0.517226 0.810382 2.940420 21 18 16
-1.025468 0.950948 2.844456 77 74 70
-0.303453 0.725900 2.928224 67 66 64
-0.294644 0.694043 2.885153 12 11 10
-0.485822 0.787262 2.919901 36 30 27
-0.412837 0.763719 2.928822 15 13 13
-1.060329 -1.144773 5.669029 28 25 24
-0.795086 0.943117 2.992494 38 36 32
-0.371013 0.801141 3.016607 73 71 69
-0.508671 0.798694 2.925774 101 97 92
-1.798142 -1.857249 6.142013 222 152 26
0.862006 2.578385 3.502732 6 4 3
1.388760 -1.731999 5.701268 70 65 62
-2.479547 -0.722183 5.769351 11 19 19
-0.281278 0.683273 2.865990 19 15 12
-0.395527 0.750776 2.907092 33 27 25
-0.378265 0.801350 3.009335 39 36 33
-0.498760 0.753329 2.866052 26 23 20
-2.437026 -0.290359 5.711075 63 65 63
0.775276 0.903602 3.894485 111 124 121
-0.446568 0.772707 2.925346 57 52 52
-0.631979 0.829873 2.905514 54 51 47
0.916547 0.962387 4.295877 25 20 17
-0.331099 0.697552 2.863096 33 28 27
0.660389 3.323282 3.236991 46 46 48
-0.905914 0.923229 2.875366 35 31 26
0.139879 0.727665 3.084471 71 71 67
-0.320270 0.772316 2.999658 33 30 29
-0.601376 0.889129 3.027043 67 62 60
0.444701 0.821117 3.380913 79 78 75
0.962033 -3.988033 6.737247 97 89 79
0.309660 0.839861 3.294944 38 36 33
0.165967 0.657368 2.979001 18 15 15
-0.698420 0.877787 2.932085 61 59 56
-2.458951 1.794009 4.840415 175 170 166
-0.428479 0.773692 2.934563 33 28 24
-0.302768 0.725817 2.927788 87 84 81
-0.669350 0.827076 2.864361 87 82 81
0.061347 0.495447 2.791618 36 36 33
-0.836040 0.898077 2.893431 84 78 72
-1.028005 0.957470 2.881389 33 28 26
-0.977926 0.934484 2.857614 80 76 70
-0.531903 0.834303 2.959756 91 88 84
-0.256462 0.708619 2.926765 110 111 111
-0.492147 0.836138 3.003067 80 74 71
-1.645835 -2.038010 6.169610 68 62 59
-0.786131 0.875881 2.890758 52 47 44
-0.347041 0.721689 2.892955 69 66 65
0.212036 1.475142 4.145549 50 43 39
-0.330553 0.697540 2.863121 27 22 21
-0.365110 0.720095 2.877583 33 29 29
-0.397832 0.761509 2.927970 101 99 96
-0.448261 0.715782 2.821594 27 26 25
-2.624923 -1.713412 6.233561 26 28 27
0.159791 0.603230 2.975672 34 36 30
-1.766704 -0.806414 5.697676 130 123 122
-0.081331 0.965037 4.518305 150 147 143
0.136368 0.782529 3.114900 87 82 80
-0.495142 0.743861 2.841698 75 67 66
-1.070581 -0.971337 5.558915 104 98 93
0.607876 3.269960 3.337831 31 29 28
-2.548482 -1.335450 6.030638 55 60 77
0.652994 2.628787 3.482696 52 51 49
-2.489865 -0.550489 5.671795 62 61 59
-2.772043 -0.726932 5.808313 0 0 0
-1.898135 -1.116152 5.829187 45 25 12
0.817348 0.966461 4.047707 130 126 121
-0.114962 0.625090 2.750856 53 48 46
0.824035 1.973770 3.798511 18 16 14
0.100837 0.644864 3.002319 14 14 14
0.769025 0.371843 3.966972 184 176 170
0.006408 0.620676 3.701530 188 180 174
1.012327 2.194263 3.953081 141 133 130
-0.439387 0.583114 2.848256 96 92 85
-2.137499 -0.423083 5.817202 149 143 139
-0.398592 0.820084 3.005324 60 62 54
-2.315201 -2.417589 6.435151 59 64 50
0.455761 0.962084 3.047196 57 56 54
1.115052 -4.294415 6.934026 60 49 38
1.105436 -4.842041 7.199483 95 84 73
0.438598 1.407881 4.032729 16 10 6
-1.007500 0.906716 2.903803 89 89 83
-0.435199 1.711530 2.724338 0 0 0
-5.623694 -17.932710 24.590455 86 80 70
0.711117 1.177503 2.900495 86 80 70
-0.364116 0.673426 2.805862 16 13 11
0.933648 -4.750023 7.136618 29 20 14
0.480267 0.771698 3.711040 35 29 27
-0.082645 0.532010 2.957634 83 77 75
4.584276 1.222846 3.529640 53 41 34
0.928750 0.853654 4.326125 29 24 29
3.491691 1.545836 3.809836 39 37 32
0.015771 0.405429 2.912136 87 78 82
3.420394 0.863764 4.003468 94 87 74
-0.258966 0.504249 2.901336 52 54 52
-0.022353 0.372566 3.020681 84 78 72
-0.190980 0.417961 2.875941 13 13 13
4.059237 2.564698 3.168578 38 37 33
0.991625 0.994298 4.307331 182 178 177
0.668232 1.423303 4.093806 57 59 59
-0.006108 0.444606 3.070784 32 28 25
0.196320 0.808498 3.648304 179 183 179
0.182599 0.574024 3.413417 93 89 83
3.525521 0.588337 2.290873 18 24 19
-0.031824 0.491318 3.073606 54 51 54
0.169686 0.581791 3.496120 111 105 101
18.254317 20.747151 6.935351 0 0 0
0.615818 0.780418 4.411496 37 33 30
0.147845 0.435073 3.050011 168 174 170
0.151350 0.492385 3.075959 189 169 164
-0.054807 0.539645 3.151083 38 37 35
-0.040043 0.605274 3.114812 33 33 25
0.382275 0.986232 3.815282 170 176 175
0.034269 0.504435 3.279477 35 27 25
2.921045 0.178283 4.474062 70 67 67
4.047399 3.415272 2.716573 1 3 5
-0.020418 -0.954653 3.779042 206 196 191
0.193988 0.551135 3.484884 85 79 77
0.496099 0.780660 4.031172 100 90 89
0.196328 0.538773 3.471346 35 29 32
0.187893 0.562075 3.492463 43 37 37
0.197737 0.666959 3.606074 20 16 13
4.186502 2.300983 3.233409 33 29 24
3.846470 3.119937 3.000700 144 150 145
0.581179 0.658957 3.604305 59 51 49
3.764315 1.419558 3.706413 28 26 23
0.412002 0.998407 3.872920 174 172 170
0.086875 0.658461 3.435416 39 37 38
0.473669 1.023960 3.979909 167 173 177
-0.213412 0.370806 2.894745 4 8 7
0.551769 0.967830 4.293206 38 38 38
0.188020 0.562400 3.492260 43 37 37
0.069453 0.427971 3.113716 77 60 52
3.318487 0.132563 4.393756 127 129 126
9.186437 4.324822 4.499756 33 33 27
0.186500 0.577970 3.509403 30 22 18
5.289444 5.218698 1.725753 170 164 165
0.663058 0.734273 3.995202 130 124 120
0.340102 0.535687 3.524077 64 57 57
0.296403 0.511883 3.460396 90 83 86
0.326606 0.503726 3.277620 68 70 74
0.363343 0.537948 3.251746 177 177 172
4.262350 3.828308 2.737951 135 147 139
0.852230 0.799296 4.559421 0 0 0
6.290556 5.981274 1.489921 168 162 160
0.383351 0.496881 3.040175 42 45 49
0.706861 0.737669 4.376511 88 86 80
3.389764 0.313565 4.301707 140 144 142
3.910091 0.800500 3.722573 70 60 57
0.170873 -1.112468 4.189450 159 149 142
0.924050 0.803884 4.446455 56 46 45
3.318490 0.242133 4.320663 130 131 128
2.861350 0.078148 4.336194 144 144 138
10.667356 3.608533 5.353168 121 117 111
0.141836 0.559148 3.444472 49 43 40
0.029606 0.499817 3.263326 95 90 89
0.493473 0.833856 3.744485 28 25 22
0.480999 0.812104 3.743398 28 25 22
0.176209 0.578423 3.501670 111 103 101
0.114416 0.497042 3.319732 75 69 67
0.307771 0.627368 3.690224 82 78 75
0.301119 1.365405 4.175037 78 82 82
-0.263073 0.410088 4.358661 32 26 24
0.278189 1.249294 4.341901 42 42 42
0.248847 0.888328 3.604318 41 39 38
0.429946 1.165202 4.226965 3 3 3
0.274288 0.882837 4.669558 30 20 17
-0.000380 -1.021988 4.009507 43 45 45
0.100415 0.507578 3.340575 93 85 81
0.485045 0.818408 3.721948 14 12 9
1.530010 2.536085 3.423337 61 60 60
0.378646 1.058932 4.314072 14 16 14
0.377510 1.204329 4.233638 3 4 3
8.290631 11.527158 2.612578 93 92 96
4.449375 4.175787 2.517848 15 19 18
0.778481 0.759893 3.933473 185 183 180
0.565334 0.698690 3.966384 13 11 8
3.400553 1.676520 3.764714 145 139 137
1.552444 0.505939 2.642148 60 48 47
0.157127 0.671833 3.471587 92 88 85
2.973784 0.242732 4.410828 126 132 129
0.330485 0.644930 3.666034 22 18 15
0.485045 0.818408 3.721948 14 12 9
0.299195 0.566370 3.581738 23 14 9
0.390134 0.576787 3.655131 147 137 136
0.694548 0.883412 3.826431 21 17 15
0.495274 0.748214 3.997526 88 83 79
3.437150 1.202024 3.936623 29 28 24
3.219749 1.391318 3.867891 148 144 140
3.215537 0.430748 4.257362 46 42 35
0.707758 0.725750 3.760309 187 188 184
0.713191 0.724122 3.868161 58 52 48
0.333950 0.548847 3.555970 20 17 5
0.647876 0.695119 3.756766 88 86 83
0.651274 0.797332 3.976843 0 0 0
0.679144 0.855179 3.758551 16 10 10
0.495274 0.748214 3.997526 88 83 79
0.533908 0.784176 3.932613 80 74 71
0.435278 0.729186 3.779696 15 9 5
0.354960 0.600839 3.666231 13 9 6
0.298141 0.565438 3.582114 23 14 9
-0.218032 0.064767 4.113532 39 32 33
0.521416 0.827409 4.036372 73 68 64
0.461785 0.790649 4.024393 50 49 44
0.561450 0.858815 3.800501 25 21 18
0.520233 0.674652 3.921983 28 22 18
0.525163 0.667836 3.902188 32 30 31
0.661137 0.797318 3.935148 32 30 31
0.765030 0.784028 4.406370 60 56 49
3.173049 -0.062362 4.535306 136 136 136
3.173049 -0.062362 4.535306 136 136 136
3.519261 0.889968 4.013336 116 107 97
0.517671 0.710621 3.978332 30 24 20
0.873016 2.382460 3.532584 15 18 20
0.675536 1.149243 3.670318 25 22 18
4.939985 5.213292 1.713081 110 114 116
0.343014 0.627855 3.719933 18 12 10
0.387986 0.617736 3.649917 25 19 15
0.064260 0.398103 3.650963 27 21 17
0.455030 0.815003 3.635394 23 18 18
1.632761 1.671548 2.691482 8 6 7
0.621354 0.770111 3.943139 28 22 18
-0.559854 -0.343010 3.901979 152 144 142
0.596320 0.771166 3.725041 21 17 16
0.570873 0.707185 3.589390 27 23 19
0.485659 0.758713 3.920827 17 11 9
0.659185 1.123457 4.216316 5 2 7
0.027507 0.394300 2.929940 128 136 146
0.669477 1.318993 4.078704 62 66 62
0.124604 0.660942 3.477051 36 34 35
0.456870 0.986578 4.303470 41 44 46
3.632329 1.067445 3.908584 71 70 63
3.173049 -0.062362 4.535306 136 136 136
3.412444 0.331237 4.280004 45 49 47
3.357034 0.257865 4.344308 49 49 49
2.937820 0.007863 4.514440 55 55 53
0.056349 0.485778 3.278129 90 87 85
-0.233687 0.520603 2.942206 61 55 54
5.886228 5.208775 1.616398 5 6 6
-0.057141 0.928577 4.499353 22 21 20
0.567542 0.761538 4.107385 97 89 85
0.531296 0.689451 3.968977 18 13 16
0.224664 0.542362 3.487400 20 14 12
0.536305 0.846161 4.029970 15 13 13
0.127973 0.663596 3.492563 27 25 23
3.798231 1.845730 3.530702 77 83 79
0.157219 0.582495 3.480544 25 21 22
3.470493 0.024246 4.439301 20 22 23
4.379356 2.921507 2.970301 8 9 9
0.170783 0.683317 3.632413 40 37 34
-0.168666 0.231769 2.766460 0 0 0
-0.240624 0.485583 2.909984 6 11 12
-0.199972 0.356431 2.907136 43 40 45
-0.092403 -0.955612 3.476604 0 0 0
-0.074955 0.352942 2.922493 47 44 39
-0.016875 0.491048 3.203656 38 34 32
0.368480 0.540383 3.550006 31 24 20
-0.016321 0.491494 3.203008 38 34 32
0.476456 1.004500 3.982896 29 26 29
0.330012 1.122749 4.366429 26 29 31
0.440879 0.802457 3.666318 83 79 74
5.058500 5.121613 1.654728 38 40 46
0.099887 0.354019 3.673741 16 12 9
0.503739 0.767175 3.628849 27 23 18
0.386446 0.632279 3.894119 33 27 23
0.530879 0.637440 3.521856 71 67 64
0.185257 0.579113 3.502140 40 32 39
0.341851 0.941902 3.726893 59 64 61
5.028309 4.307223 2.689763 33 33 26
0.024193 0.509836 2.763633 34 30 27
0.146231 1.260538 4.242746 29 27 27
0.217182 0.746641 3.780142 158 156 157
0.114219 1.230145 4.024714 161 159 158
0.718643 2.660976 3.414875 84 90 87
0.800048 3.272457 3.158667 86 91 91
0.790543 3.575517 3.197097 86 91 91
-0.968410 0.658232 2.723026 69 65 62
0.895543 2.258706 3.621805 71 79 75
0.129647 0.505859 3.013750 102 110 109
-0.410306 0.655232 3.046345 0 0 0
0.707263 3.186022 3.193836 92 92 91
-0.074940 0.402300 2.762405 42 40 37
-0.095285 0.467518 2.618752 162 164 170
-0.095285 0.467518 2.618752 162 164 170
0.188376 0.521330 3.304480 49 41 39
0.147960 0.674595 3.592331 167 163 161
0.318243 0.575522 3.348314 46 44 41
-0.263974 0.527817 2.966248 70 66 61
-0.055013 0.458946 3.047657 45 41 34
0.089717 0.485702 2.999894 50 48 45
-0.638111 0.723417 2.787787 69 67 63
0.064497 -0.185111 2.686333 91 88 93
0.390164 2.485017 3.634275 59 61 64
-0.170875 0.373337 2.855356 70 67 64
0.181920 0.539470 3.048582 69 64 61
0.147632 0.520750 3.094246 29 29 29
-1.015470 0.850987 3.025228 31 30 32
-0.351097 0.574940 2.769931 105 102 104
-0.286038 0.486226 2.924264 74 69 67
0.080787 0.549282 2.769783 171 168 171
-3.741789 26.959833 -3.275387 48 49 53
1.017243 1.170854 4.327338 58 58 54
0.024104 0.410544 2.727935 5 6 8
-0.018490 0.451499 3.052474 82 74 73
0.100646 0.498531 3.031660 33 37 36
0.096334 0.502145 3.057790 68 64 61
0.214409 0.540908 3.089814 62 60 55
0.630648 2.858724 3.344686 73 76 78
0.745597 2.883199 3.372918 73 77 75
0.295631 0.672140 3.274383 0 0 0
-0.722693 0.654806 2.825865 46 40 36
0.006419 0.400213 2.736808 82 83 85
-0.010365 0.383091 2.760757 151 157 150
-1.850087 9.680002 0.264699 143 141 136
-1.672989 4.467255 2.148471 0 0 0
-1.273468 0.720531 2.608958 70 64 62
0.058557 0.444199 3.078856 49 45 42
0.201209 0.461593 3.177904 60 58 55
0.354347 2.149739 3.791543 42 46 44
1.223593 3.641462 3.238640 0 0 0
0.343526 0.601539 3.250318 74 77 80
0.080771 0.484573 2.907239 70 66 69
-0.483378 5.434371 2.731505 95 100 101
-0.026777 0.391546 3.020999 42 38 35
0.043561 0.431927 2.992305 62 54 54
5.978274 32.251303 -1.977540 141 142 134
-0.655155 0.878534 2.896527 77 73 70
0.947758 0.896489 4.384448 42 41 35
0.554438 0.710281 4.100969 5 4 5
-0.068953 0.939321 4.467240 21 15 15
0.867639 2.141646 4.045308 46 42 42
1.056618 1.263920 4.338278 55 53 50
-0.346210 0.306021 2.483065 83 82 82
-0.900943 0.790348 3.010049 82 77 76
-0.191632 0.382024 2.747742 86 81 81
-1.219412 0.709214 2.657157 32 26 24
0.531544 0.047153 2.146833 38 41 39
-0.656429 0.582800 2.346788 0 0 0
-1.226156 0.652610 2.531854 26 22 19
0.852375 1.036427 4.181797 73 73 69
-0.653290 0.652894 2.862023 27 25 24
0.016835 0.454252 2.711063 43 51 49
-0.515755 0.648568 2.994633 78 74 71
0.092354 0.489113 2.956082 65 55 58
-0.355860 5.183916 2.743668 78 84 86
0.704045 0.900278 4.262773 45 44 44
0.578747 3.102101 3.290223 96 102 95
1.098642 2.889677 3.373027 20 16 19
0.898879 2.662021 3.422318 92 98 93
0.742421 -0.983242 2.722542 46 50 48
0.325875 0.519431 3.332214 24 22 18
0.773583 2.245776 3.666622 72 71 69
-0.405443 0.679902 3.101585 80 75 72
-0.846965 0.819269 3.093146 78 72 74
-0.644967 0.738705 3.053732 27 23 22
-0.231430 0.448330 2.877989 4 2 1
0.070186 0.407914 3.041268 28 22 20
0.029902 0.464315 3.100951 64 62 61
-0.133888 0.475825 3.017989 50 44 42
-0.057810 0.421360 3.029869 90 86 81
0.071381 0.395091 2.960398 66 59 57
0.014746 0.538612 2.701228 35 39 35
0.293347 0.713166 3.131428 0 0 0
0.324335 0.650392 3.366758 16 23 26
-0.380132 0.655341 3.062950 20 16 15
-0.348303 0.611756 3.077461 76 70 70
-0.487830 0.726761 3.153704 72 67 66
0.065120 0.327545 2.815681 29 29 27
-0.373312 0.609617 3.050468 72 68 67
-0.717590 0.769590 3.098454 68 66 65
-0.137995 0.348001 2.852459 57 57 55
-0.382141 0.604471 3.003951 79 74 72
-0.466256 0.636794 3.022470 17 13 11
1.064104 2.639422 3.385188 100 104 102
0.309759 0.514057 3.447489 61 55 53
0.538823 2.430038 3.620781 5 6 12
0.415491 0.731726 3.296102 58 61 59
0.574802 2.513454 3.574845 44 47 47
0.422034 0.603590 3.509670 76 67 67
1.156751 3.117951 3.264184 64 68 64
0.487320 0.711778 3.443960 68 68 64
0.121066 0.523679 3.039374 163 175 176
0.028184 0.452669 3.136908 43 41 37
0.627915 3.085671 3.322158 111 117 112
-2.707147 0.976371 5.271654 137 135 134
0.754237 3.153466 3.210406 73 83 78
0.655234 2.537907 3.469444 37 39 37
0.599609 3.127427 3.259507 112 116 116
0.134408 1.247242 3.210471 97 100 102
-1.064778 6.261415 2.801542 48 47 49
-0.137176 0.190850 2.612816 83 74 70
-0.251479 0.380003 2.592378 101 94 87
-0.852000 0.789447 3.025249 85 79 79
-0.023380 37.761710 -1.850685 64 64 53
-0.060939 0.436758 2.664813 76 74 74
-0.039966 0.484052 2.616241 174 189 186
-0.497204 0.617814 2.950435 72 68 67
-0.448801 0.587501 2.923215 17 13 12
0.063071 0.456725 2.704038 43 42 47
-0.986695 0.517590 2.465205 69 67 66
-1.272805 0.708370 2.585712 81 73 69
-1.221730 0.691177 2.582976 79 72 70
-1.199471 14.545313 -0.781147 167 166 154
-0.896873 0.586042 2.675665 64 61 59
-2.538787 18.169304 -1.856283 30 34 34
0.492822 6.648250 0.313489 162 164 154
-0.476866 0.654339 3.026210 17 13 11
0.953954 3.200319 3.241687 79 83 81
0.492678 0.695139 3.398515 132 139 140
0.486933 0.711112 3.424733 68 74 71
0.134881 0.457752 2.915947 69 69 67
-1.428289 10.865558 1.002902 120 119 108
-1.007499 0.797427 2.942888 16 13 12
-0.174075 0.373748 2.718985 79 72 72
-1.490876 16.596757 -1.228067 88 83 78
-0.460843 0.594207 2.935845 71 67 64
-0.448801 0.587501 2.923215 17 13 12
0.680802 0.924101 3.992661 69 71 67
-1.655439 -0.902976 5.616798 41 31 28
0.333544 0.890052 3.708247 23 18 17
0.571363 0.688839 3.618324 30 26 25
-0.021348 1.013291 4.408884 58 52 51
0.862028 1.939372 4.030549 84 82 81
0.916899 2.210569 3.683562 17 22 20
0.447990 0.763003 4.431049 44 40 37
0.267210 1.011929 4.752904 18 14 13
0.695398 -0.345703 3.368407 74 71 68
0.319233 0.809087 4.459364 63 60 55
-1.646687 -0.901509 5.595405 41 31 28
0.829159 1.928385 4.102018 92 87 90
0.642949 0.668009 3.909130 97 95 92
0.032322 0.931122 4.556509 26 22 21
0.278679 1.011179 4.336780 24 24 18
0.676604 0.746945 3.910817 82 83 81
-0.726411 0.736957 2.984585 82 76 74
0.581719 2.441026 3.613248 62 67 63
-0.229412 0.414956 2.713771 86 86 86
-0.765779 0.748010 3.013995 88 82 80
0.937340 1.174225 4.140815 45 39 39
1.001551 1.118512 4.168306 93 91 84
0.693661 0.718501 4.079332 75 67 64
0.388634 0.814876 4.406133 27 26 25
0.677247 0.765760 4.092711 81 73 71
0.540903 0.947334 4.291030 25 29 25
0.908131 1.015655 4.279385 44 44 42
0.954767 1.032369 4.199749 52 51 51
0.883319 0.983675 4.230808 41 41 39
0.057473 1.242496 4.173283 0 0 0
0.769662 1.844405 3.900028 30 26 25
0.428595 0.560034 3.507175 60 57 54
-1.256804 0.696733 2.588114 81 73 69
0.489039 0.835706 3.810876 66 62 57
-0.033355 1.102403 4.368484 159 155 154
0.637260 2.468015 3.605555 26 28 26
-0.419194 0.666429 3.076904 71 65 65
0.124226 0.443302 3.040268 65 66 66
-0.467337 0.683392 3.096310 18 16 13
0.185174 0.450049 3.179790 27 25 22
0.131809 1.274504 4.437035 153 153 149
0.003763 0.370243 2.742618 56 58 58
0.541295 0.736924 4.029995 95 90 88
0.101105 1.412135 4.198560 35 31 27
-0.002791 0.485936 2.653229 86 91 92
-0.979396 0.878287 3.047815 79 75 76
-0.763733 0.703076 2.957424 19 15 12
-0.990922 0.913588 3.099852 68 66 67
-0.703618 0.699519 2.976396 82 76 74
-1.084970 0.837276 2.961035 23 19 18
-0.620763 0.654221 2.884894 53 47 45
-1.020085 0.852497 3.015395 14 13 15
-0.193514 0.354425 2.707603 86 86 86
-0.737010 0.779744 3.079450 70 70 66
-0.659936 0.727204 3.039961 77 71 70
-1.310416 0.702557 2.564266 73 66 64
-1.036298 8.724112 1.318577 176 174 162
-1.192639 0.829905 2.895832 59 56 56
-1.174890 0.818332 2.864150 76 69 67
-0.286857 -0.297003 2.721183 168 170 171
-0.850166 0.763697 2.628215 14 16 21
-5.798623 36.405252 -1.221256 76 72 64
-1.167191 9.198990 1.480560 162 159 149
-0.934365 0.573928 2.606954 91 83 83
-2.266505 13.884300 -0.392991 37 40 40
-0.866960 0.749474 2.598668 21 23 27
-1.841178 2.182196 2.676473 168 171 177
-1.234437 0.750540 2.741820 72 68 67
0.733591 0.754139 3.828823 64 62 58
0.650903 2.991860 3.307661 72 76 75
0.652164 3.184543 3.236441 116 124 123
0.429493 2.647667 3.460247 180 180 178
0.122860 0.518167 3.019474 83 93 89
0.013799 0.474680 3.088426 56 54 53
0.189240 0.617226 2.970002 132 134 138
0.195919 0.437184 3.162813 31 26 24
0.198237 0.449563 3.154058 59 56 56
0.264566 0.644274 3.045564 104 108 98
0.228346 0.577269 3.021856 27 32 35
0.161771 0.534185 3.044965 71 72 69
0.158767 0.428251 3.025341 38 37 35
0.375226 0.627742 3.423381 29 34 38
0.333549 0.513454 3.436398 33 30 27
0.607498 0.699335 3.946145 35 33 28
0.920534 2.519121 3.490369 100 102 100
0.738316 2.357912 3.570008 54 54 54
0.461220 0.683310 3.473706 90 88 87
0.973127 2.382965 3.576111 71 73 73
0.639042 2.529310 3.581610 32 29 32
1.087230 2.783438 3.315220 112 116 113
0.569097 2.442459 3.592633 51 54 58
0.322758 0.509103 3.339019 64 58 56
0.785954 2.577638 3.464168 26 29 28
0.761555 2.530987 3.465168 29 31 28
0.668404 2.617450 3.467311 30 34 30
0.348098 2.181251 3.784495 53 49 46
0.030244 0.364924 3.018885 24 18 16
1.080788 2.744718 3.339286 107 109 109
0.542035 2.429497 3.641266 40 38 43
0.596409 2.424094 3.604972 25 28 24
0.055871 0.450316 2.823425 38 36 34
-0.303786 0.571521 2.991465 80 74 74
-0.688217 0.758730 3.090734 22 16 14
-0.529777 0.678733 3.046442 87 83 80
-0.371788 0.583696 2.971338 12 10 7
0.013024 0.368099 2.866189 0 0 0
1.253848 6.528803 1.928874 136 142 137
0.039993 0.428386 2.835052 58 59 58
0.010911 0.447497 2.834688 0 0 0
-0.392114 0.601689 2.996160 20 14 12
-0.353147 0.547084 2.918338 66 61 60
0.113809 0.513132 2.998810 56 67 67
0.725581 2.547383 3.452123 102 104 102
0.628530 2.633849 3.532208 70 72 70
-2.549058 1.590203 4.972536 0 0 0
-1.008001 10.931354 0.289624 173 167 161
-5.801471 40.123332 -5.528201 120 116 111
-1.327262 0.786142 2.734175 166 166 169
-1.228068 0.758205 2.706723 76 70 68
-0.926228 0.620074 2.654394 35 31 30
-1.124146 0.865932 2.991896 170 171 173
-1.239966 0.683530 2.576640 73 65 62
-0.929927 0.664427 2.549521 48 45 48
0.422359 1.035554 4.342693 39 37 33
0.536002 0.759090 3.889570 27 21 19
-0.868429 0.776097 2.976052 16 10 10
-0.745654 7.049802 1.998984 193 200 199
-0.038176 0.503148 2.617790 105 119 115
-0.732231 7.038995 2.027490 43 53 49
-1.033173 0.859160 3.022663 88 87 87
0.849866 2.562411 3.476767 43 43 43
0.548704 2.361480 3.637128 13 12 14
0.619164 2.353584 3.576279 106 106 102
0.757848 2.569890 3.462775 82 84 84
0.635614 2.497219 3.540040 86 85 87
0.739007 2.530678 3.466396 79 79 77
0.632258 2.463220 3.535326 68 67 69
0.749593 2.560276 3.452461 32 34 34
0.794890 2.536168 3.463166 74 76 74
0.772559 2.506807 3.468653 67 67 65
0.935063 2.312710 3.649731 77 81 79
0.379745 0.633701 3.423372 117 124 129
0.775555 2.348039 3.581808 55 57 55
0.475021 0.779584 3.370309 142 147 148
0.709841 2.263960 3.717483 58 58 56
0.758824 2.275783 3.665016 43 47 45
0.788518 2.328008 3.611558 46 47 45
0.083716 0.926702 3.286203 0 0 0
0.284528 0.640270 3.102657 49 55 52
0.207193 0.441315 3.136622 65 61 62
0.183434 0.565964 2.987543 73 78 77
0.730372 2.049303 3.000901 111 116 108
0.752837 -0.249745 2.803482 72 75 75
0.507943 2.588547 3.532129 108 110 106
-1.535184 0.210551 4.354917 161 157 156
1.099861 2.947452 3.276077 109 112 115
0.725581 2.547383 3.452123 102 104 102
1.097275 2.911757 3.242920 103 103 101
0.791183 3.598362 3.203301 71 77 76
0.759273 3.265885 3.131073 102 104 98
0.561396 0.768622 4.022345 58 54 53
0.380116 0.999147 4.319821 76 78 70
0.246105 0.974337 4.357729 60 60 58
0.538318 0.750525 4.023780 13 8 3
0.908141 0.386745 3.916029 16 16 16
0.799425 0.858108 4.243994 22 17 20
-0.136420 5.081721 7.121653 31 33 33
0.650164 0.704999 3.957138 112 102 99
0.535391 0.794472 3.918996 27 21 19
0.353472 0.171395 3.810431 20 18 17
-1.182198 5.750643 2.756838 158 154 153
-0.379930 0.541328 2.899935 40 36 35
-0.353070 0.547188 2.917933 66 61 60
-0.915706 0.827153 3.048057 83 79 78
-3.345594 20.511225 -1.476219 124 122 121
0.067043 0.535958 2.813091 30 32 34
0.054525 0.418223 2.827519 59 57 52
-0.007849 0.404669 2.880103 83 81 81
-1.708225 2.177853 4.044278 0 0 0
0.006824 0.444256 3.035246 70 62 60
1.438411 6.382651 1.958053 152 162 156
-0.347826 0.559721 2.953357 28 23 20
0.108194 0.519471 3.004224 56 67 67
-0.705386 5.455942 2.780386 50 52 54
0.386708 1.054953 4.349051 34 38 30
-0.473027 0.659316 3.043003 40 36 34
-1.840063 -0.782535 5.670166 194 188 183
0.001080 1.128606 4.340341 19 20 17
-0.361388 0.589839 2.987167 15 11 9
0.866977 0.936864 4.251835 25 27 30
0.229099 0.995875 4.358250 49 51 48
0.116176 0.534282 3.066438 20 20 20
-0.695005 5.450462 2.753559 55 60 63
-0.019942 1.113272 4.370169 20 16 14
-0.753560 0.757903 3.057618 75 68 66
0.990066 0.905059 4.526176 64 59 55
0.169806 6.867214 2.016470 111 117 115
0.161279 0.989806 4.727552 116 111 112
0.267795 6.733424 2.062515 96 97 97
-0.704634 6.972558 2.105233 141 144 144
-0.135237 1.469860 4.267916 165 159 157
-0.237773 0.320044 2.796392 58 54 53
0.744390 3.206344 3.195868 106 112 105
0.881806 0.947958 3.983925 146 148 148
0.422320 0.705058 3.316301 82 81 78
6.030230 35.479441 -2.448462 156 146 141
0.358202 2.624110 3.623406 174 175 171
1.052020 2.514179 3.448629 14 17 16
-1.527502 16.494237 -1.134643 85 81 76
0.318071 0.812931 4.464136 63 60 55
-0.996648 8.799604 8.782866 11 8 8
-0.375414 0.591966 2.771561 106 107 109
-0.976411 0.582013 2.560898 74 72 71
-1.083196 9.407523 -0.231304 97 95 86
-1.517846 12.822874 -0.195952 110 106 98
0.203578 0.383136 3.153819 27 25 22
1.109128 3.089926 3.199318 36 36 34
0.410066 0.701996 3.284530 87 87 87
0.937614 4.819351 2.011633 170 178 171
0.653138 2.413802 3.541795 89 90 91
0.340794 0.685276 3.906507 41 41 39
0.325207 0.925991 4.250911 14 13 12
0.250473 0.882556 3.869238 39 35 34
0.514106 0.970856 4.262839 4 6 4
0.368366 0.999641 2.993627 184 182 181
-0.589080 0.669653 2.969307 69 65 62
-0.234467 0.631439 3.200319 0 0 0
-1.967035 -0.549306 5.585466 179 175 168
0.943689 0.984156 4.196705 12 14 14
-0.402054 0.069865 2.648260 0 0 0
-0.819911 0.757157 2.883480 64 61 58
-0.601961 0.672996 2.830010 41 41 39
0.666076 1.692595 3.938486 66 67 63
0.232459 0.588907 3.049450 32 29 34
-0.347611 0.623466 3.078399 57 51 51
0.425871 0.806865 4.205153 49 47 48
-1.083797 0.589209 2.517129 73 65 63
-1.325484 0.733397 2.580392 57 49 47
0.011646 0.551619 2.667620 156 159 165
-0.810516 5.634250 2.788179 27 28 30
0.280456 0.599479 3.476051 50 46 43
0.079338 0.621497 2.795538 171 171 171
-1.129722 0.804214 2.878719 0 0 0
-0.027925 0.409079 2.761970 119 125 120
0.805346 0.995828 3.993076 88 87 80
0.970273 1.024109 4.403833 88 83 84
0.849886 2.004415 3.801329 33 31 30
-0.904526 5.809707 2.563678 0 0 0
0.022008 0.446698 2.961539 70 62 62
0.758825 2.564331 3.412918 90 96 95
0.465702 0.678434 3.405114 40 36 33
-0.167608 0.361002 2.854882 69 67 66
0.084273 0.436593 2.705948 0 0 0
-1.093138 0.847094 2.972420 43 39 38
0.845756 1.927072 4.015085 41 45 45
0.338694 0.837185 4.475595 62 62 60
0.072541 0.465662 2.920992 220 230 228
0.928631 -0.456435 2.514348 163 169 162
0.217205 0.459161 3.140401 49 57 56
0.637892 3.246069 3.396681 80 83 84
0.420301 2.526076 3.529303 76 77 83
-0.501999 7.317611 1.926196 161 169 166
0.123220 0.450800 2.917683 0 0 0
-0.721137 0.637717 2.840781 98 89 87
1.024375 1.173488 4.188252 56 56 50
0.051493 0.468859 2.835133 95 92 98
0.758765 3.080073 3.236912 107 115 114
0.938338 1.032952 4.160355 34 36 34
0.762513 2.031063 3.777136 78 76 75
-0.559973 0.622111 2.870776 36 34 33
-1.123743 1.034673 3.049186 0 0 0
0.406687 2.719248 3.669853 90 96 95
0.151819 0.557847 3.167723 60 55 54
0.369417 0.639341 3.336057 66 80 75
-1.271037 0.679649 2.542731 78 72 69
0.842457 0.384987 4.070538 45 41 41
0.973927 2.733984 3.368485 101 103 97
0.113639 0.487374 2.921732 22 22 20
-0.017961 0.353378 2.773213 124 130 129
-0.543408 0.620544 2.878684 82 78 75
0.726755 2.781634 3.381179 97 103 102
-0.720765 0.786859 3.077830 73 73 69
0.777075 0.544826 4.349325 20 18 15
-0.335763 0.639617 3.120883 178 174 171
0.040037 0.490321 3.269290 66 62 58
-0.655155 0.878534 2.896527 76 72 70
-0.637458 0.617615 2.871217 96 86 83
-0.494373 0.467630 2.862303 78 72 70
-0.385269 0.297688 2.431410 92 80 77
-0.670070 0.768192 2.813051 72 68 67
-0.695003 0.641457 2.840401 55 50 45
-0.990188 0.558745 2.515203 60 55 54
0.013030 0.555076 2.714545 83 87 85
-0.851881 0.789288 3.024988 73 69 68
-0.411377 0.583129 2.948321 69 65 62
-0.246377 0.386694 2.585371 41 35 35
-0.411334 0.583275 2.948743 69 65 62
-0.292751 0.345484 2.581296 87 85 82
-0.932497 6.595993 1.509285 138 142 142
-0.255627 0.391710 2.658333 74 70 67
-1.191090 0.854478 2.882097 74 68 66
-1.192119 0.825780 2.855597 74 72 71
-0.299421 0.588172 3.033680 70 68 67
-0.421820 0.598962 2.965913 18 14 11
0.947757 3.010287 3.213121 86 95 90
0.359148 0.508349 3.413515 43 37 35
0.480592 2.310820 3.615494 11 4 5
0.119943 0.487751 2.978238 56 59 65
0.663467 0.674211 3.893925 85 82 79
0.583749 0.712029 3.989464 17 8 10
0.359148 0.508349 3.413515 43 37 35
-0.577259 0.702749 3.051928 76 72 69
-0.053865 0.358531 2.816168 18 19 21
-0.569699 0.668712 3.006724 24 20 17
0.842107 0.843744 4.601418 103 99 95
0.731322 0.739246 3.854526 0 0 0
1.585256 6.430025 1.966744 174 184 182
0.064057 0.344241 2.838158 118 123 130
0.949252 6.324540 2.031009 193 195 192
0.020316 0.352682 2.775148 51 47 46
0.220106 0.532420 3.462002 45 40 38
0.965994 2.994857 3.236919 111 118 115
0.779214 2.845474 3.352315 81 85 83
0.341023 0.570499 3.369149 66 68 64
0.351228 2.620818 3.727639 46 51 46
0.113742 0.506227 2.958090 56 61 68
0.119943 0.487751 2.978238 56 59 65
0.147198 0.555180 2.967174 27 25 27
0.321074 0.510798 3.415853 70 62 58
0.695053 3.332081 3.148711 194 192 189
0.207373 0.444148 3.053145 59 57 52
0.237137 0.384726 3.001540 28 29 31
-0.395049 0.572395 2.932014 19 18 17
1.060661 3.040980 3.171281 108 113 106
0.212387 0.416813 3.210851 33 27 23
0.697709 2.616021 3.455174 44 48 46
0.597292 2.586764 3.532244 50 54 53
0.342330 2.531400 3.677231 176 176 172
0.861633 2.043966 3.749784 35 34 35
0.333882 0.539860 3.456235 74 70 67
0.414739 0.615207 3.476358 73 69 71
1.904946 6.434477 1.854380 126 130 128
0.012364 0.346594 2.817209 23 18 18
0.169001 0.622495 2.966164 36 38 35
0.012110 0.453502 3.091752 43 40 39
0.210600 0.631275 3.005488 109 121 123
0.163219 0.485108 3.023503 44 46 42
0.973103 3.323542 3.084180 132 141 133
-0.146775 0.455652 2.984509 47 43 40
-0.263075 0.273629 2.508481 86 70 66
-0.239770 0.317251 2.441700 95 97 94
0.754356 -1.233736 2.516585 60 48 45
-0.694636 0.390149 2.712102 24 20 19
-0.281451 0.460949 2.623709 66 61 54
-0.020760 0.503621 3.075538 48 44 41
-1.316610 0.723057 2.598944 41 35 32
-0.987536 0.572941 2.534323 61 59 57
-0.276667 0.338832 2.404301 91 97 92
-0.846122 0.848145 3.053359 84 78 78
-1.056009 5.732586 2.713980 27 28 32
-0.922050 0.833207 3.066572 86 82 83
-0.093036 0.353176 2.838255 21 16 21
-0.658879 0.737166 3.058557 77 71 69
-0.428589 0.588763 2.946635 22 18 14
-0.081851 0.452528 2.653516 117 109 109
-0.742744 0.704466 2.956142 73 69 68
0.025406 0.476694 3.127715 66 64 65
-0.090371 0.324501 2.858096 49 45 44
0.031054 0.350253 2.822976 31 29 28
-0.405902 0.620431 3.074723 25 21 20
0.772203 2.241906 3.667198 76 78 76
0.487320 0.711778 3.443960 66 66 62
-0.783517 0.744254 2.989651 79 73 73
-0.428589 0.588763 2.946635 22 18 14
-0.462107 0.631594 2.996584 70 66 65
-0.767687 0.756346 3.015935 95 89 87
-0.846122 0.848145 3.053359 84 78 78
-0.632726 0.687500 2.985487 22 20 15
-0.653038 0.701087 2.998621 78 76 74
0.711582 0.688871 3.832165 63 57 56
0.170978 1.269227 4.429048 26 25 24
0.528795 0.994267 4.108315 31 27 24
0.445340 0.651601 3.690226 31 29 26
0.529790 0.623636 3.694077 28 24 21
0.904190 2.029023 3.962849 90 90 89
0.857597 1.894991 4.025583 92 88 89
0.900109 1.995551 3.964286 47 47 47
0.974115 2.215315 3.873958 97 89 85
1.007848 2.298464 3.815234 91 83 84
0.052610 1.054180 4.745609 21 15 14
0.664087 0.750520 3.973108 0 0 0
0.669534 0.752450 4.128288 70 62 59
0.528618 0.726738 3.998266 55 50 47
0.696706 0.699026 3.865443 69 65 64
0.683057 0.687711 3.882602 68 66 64
0.729176 0.733490 4.102735 39 32 33
0.254501 0.877450 4.646197 24 19 19
0.930832 1.002817 4.175375 69 67 62
1.026777 1.128605 4.443616 95 91 89
-1.577622 -0.797534 5.601448 107 97 93
-0.100334 5.876668 1.822176 50 50 42
0.273530 1.207196 4.229931 10 8 10
0.732206 0.892763 3.831581 0 0 0
-1.504965 2.611741 2.548242 175 177 177
-0.413163 0.542174 2.751010 0 0 0
0.011196 0.612659 3.203930 0 0 0
-0.103145 0.429670 2.633574 4 14 11
-1.348193 0.805269 2.641972 70 64 64
-0.099002 0.103589 2.401806 0 0 0
-0.595247 0.750859 2.800629 55 57 56
-1.010514 0.847631 3.049262 74 69 71
-0.262082 0.386873 2.780238 57 53 51
-0.764049 0.742557 2.979331 68 62 62
-0.805077 0.606965 2.774461 71 67 64
0.995512 0.127932 2.174532 0 0 0
-0.690845 0.739597 2.748493 49 60 59
-0.099792 0.175873 2.466217 147 154 161
-1.270838 0.772116 2.716069 72 68 63
-0.119286 0.418223 2.655044 94 86 78
-0.121412 0.377358 2.630564 136 134 130
-0.494039 0.639196 2.993659 16 12 9
-0.704313 0.754520 3.032143 17 11 9
-0.698911 0.740798 3.040314 71 67 64
-0.704197 6.518786 2.150037 155 154 158
-0.915337 0.827311 3.048770 85 80 80
-0.959507 0.775571 2.944831 17 15 14
-0.479056 0.638833 3.005835 21 17 14
-0.682603 0.733347 3.021333 76 72 71
0.778062 0.735219 3.886841 0 0 0
0.710125 3.005559 3.288894 75 78 80
0.685588 2.593046 3.539737 76 78 78
0.387657 0.644438 3.410437 49 56 56
0.492084 0.714779 3.436962 34 36 32
0.896859 2.160428 3.685340 70 76 74
0.926623 2.198882 3.634899 83 87 86
1.027767 2.419115 3.788187 54 52 51
0.844109 2.037188 3.759854 72 72 70
-4.992866 2.438559 7.044542 0 0 0
-0.847891 0.911714 3.120667 68 65 64
0.789231 2.659926 3.574216 22 20 19
0.374147 0.588623 3.421989 85 83 76
0.099200 1.381454 4.204078 39 35 32
-0.589368 0.683885 3.021891 64 60 57
0.845699 1.850866 3.979519 42 43 41
0.755094 1.815369 3.902842 80 81 77
-0.717412 0.809085 3.160019 48 46 47
-0.289025 0.580624 3.001347 66 62 59
0.028748 0.453242 2.859818 128 135 138
-0.820373 0.823643 3.131108 53 49 48
-0.858982 0.858520 3.133344 64 62 63
-0.680502 0.766464 3.102471 31 25 25
0.113937 0.446122 2.786833 0 0 0
0.734213 2.605984 3.450528 37 41 37
0.659599 2.558332 3.462077 81 85 81
1.097803 2.951754 3.228840 117 119 117
0.088421 0.487660 3.016233 75 69 67
0.240885 0.582860 3.092719 66 65 67
-0.822776 0.834090 3.118235 73 69 68
0.198612 0.566661 2.982484 69 81 78
-1.026324 3.756811 6.465207 0 0 0
-0.704313 0.754520 3.032143 17 11 9
0.026604 1.351171 4.494360 31 35 35
-0.048857 0.988726 4.395050 160 158 157
2.437503 -0.387749 4.348564 0 0 0
0.499820 0.728693 4.416793 18 14 11
0.500773 0.868090 4.511877 23 21 18
0.180643 0.982148 4.714731 20 14 14
-0.360566 5.923776 2.589577 98 105 106
0.403232 1.169267 4.417336 92 88 88
0.551446 0.786607 4.079451 83 77 73
-0.740456 0.732601 3.012256 14 8 6
0.348675 0.526574 3.420608 61 55 53
-0.758088 1.247422 3.122974 53 49 48
-0.496033 5.415199 2.713342 52 59 64
0.191311 0.479556 3.131679 62 68 65
0.734338 0.751941 3.827770 55 53 51
-1.281779 0.759325 2.652717 63 57 55
0.460674 0.912058 3.761724 22 16 17
0.373779 0.960872 4.285572 53 54 54
-0.442277 7.031531 2.046084 163 175 169
-0.840624 0.735099 2.958611 82 76 76
-0.099089 6.805703 2.050244 36 42 39
-1.162438 0.779599 2.801625 68 62 62
-1.142221 0.815120 2.898569 77 72 69
-0.377881 0.893975 2.591642 134 129 124
-1.251653 0.670769 2.540392 77 72 70
-0.992089 0.799779 2.952497 88 86 85
-0.668867 7.222017 2.069384 77 85 84
